ply
format ascii 1.0
element vertex 761
comment vertices
property float x
property float y
property float z
end_header
0.981017708778381348 0.0677966475486755371 0.24448588490486145
1.01561689376831055 0.0949293673038482666 0.107653990387916565
0.921535134315490723 0.129409700632095337 0.394456982612609863
0.894418656826019287 0.133752867579460144 0.481526762247085571
0.865793287754058838 0.169188857078552246 0.549141883850097656
0.95612257719039917 0.23901665210723877 0.192704141139984131
0.98588252067565918 0.159642472863197327 0.155910193920135498
1.02860832214355469 0.152298718690872192 0.0191135946661233902
0.986681163311004639 0.0808673053979873657 0.215291380882263184
0.954523086547851562 0.246279597282409668 0.19232138991355896
0.906945228576660156 0.154446974396705627 0.423424810171127319
1.03140759468078613 0.13958856463432312 0.0197834130376577377
0.868850529193878174 0.160155251622200012 0.54605478048324585
0.874952256679534912 0.149418547749519348 0.534149348735809326
0.98908156156539917 0.145116567611694336 0.156675711274147034
0.89012223482131958 0.0950816348195075989 0.526323258876800537
0.982012689113616943 0.179638102650642395 0.153074830770492554
0.943891346454620361 0.124863766133785248 0.323432326316833496
0.895411431789398193 0.0953069552779197693 0.508495330810546875
0.918399989604949951 0.107282891869544983 0.422347128391265869
1.02284145355224609 0.122728705406188965 0.0616488456726074219
0.967356562614440918 0.0910407155752182007 0.271766632795333862
0.975651800632476807 0.111554577946662903 0.227927014231681824
1.02784693241119385 0.133938565850257874 0.0361156128346920013
0.971859872341156006 0.162710651755332947 0.200288638472557068
0.937982618808746338 0.100786022841930389 0.362114936113357544
1.03381967544555664 0.121363602578639984 0.0260886773467063904
1.00173711776733398 0.167648956179618835 0.0966952815651893616
0.981534957885742188 0.150293409824371338 0.177782148122787476
1.00983834266662598 0.147833570837974548 0.0852683037519454956
1.01360583305358887 0.186482265591621399 0.0422546118497848511
0.898404717445373535 0.122926041483879089 0.476752489805221558
0.975755274295806885 0.128053933382034302 0.214586272835731506
1.02113842964172363 0.113492302596569061 0.0746068358421325684
0.920813202857971191 0.164201617240905762 0.369462579488754272
0.976193547248840332 0.104246571660041809 0.231875360012054443
1.02651834487915039 0.137547507882118225 0.0377070307731628418
0.900056540966033936 0.161484614014625549 0.440869987010955811
0.956613123416900635 0.261030793190002441 0.173727944493293762
0.946329057216644287 0.0919777154922485352 0.3411998450756073
0.974323153495788574 0.115163519978523254 0.229518428444862366
0.978258013725280762 0.133658856153488159 0.201819658279418945
0.95257258415222168 0.0757487490773200989 0.3331470787525177
0.876848220825195312 0.123840510845184326 0.547968506813049316
0.998317301273345947 0.0813630074262619019 0.176069945096969604
1.02902102470397949 0.143152445554733276 0.0249404143542051315
0.984386444091796875 0.18340475857257843 0.14218670129776001
0.998471915721893311 0.0685401931405067444 0.185653716325759888
0.964713156223297119 0.16607174277305603 0.221490785479545593
0.964673638343811035 0.112919680774211884 0.263487190008163452
0.926849842071533203 0.114973939955234528 0.388091295957565308
0.951554238796234131 0.128855735063552856 0.29471626877784729
0.91485220193862915 0.0943023562431335449 0.444410443305969238
0.967138051986694336 0.140516236424446106 0.23352716863155365
0.917290985584259033 0.136559993028640747 0.402988165616989136
0.930281400680541992 0.118785664439201355 0.373637586832046509
0.979380905628204346 0.172194898128509521 0.167719930410385132
0.930217444896697998 0.1554383784532547 0.344981938600540161
0.91705852746963501 0.118222378194332123 0.418207406997680664
0.990087151527404785 0.0993401184678077698 0.189375400543212891
1.01772081851959229 0.17749372124671936 0.035601884126663208
0.880730807781219482 0.0965143367648124695 0.556535005569458008
0.999014735221862793 0.136375859379768372 0.130412250757217407
0.926863789558410645 0.182787075638771057 0.334632635116577148
0.907460212707519531 0.0866563692688941956 0.475100696086883545
0.952935218811035156 0.171068310737609863 0.256859570741653442
0.905280590057373047 0.123218953609466553 0.453576207160949707
0.963010132312774658 0.15683533251285553 0.23444877564907074
0.917342185974121094 0.107237830758094788 0.425912708044052124
0.912930667400360107 0.13454146683216095 0.419129014015197754
0.890174567699432373 0.140903159976005554 0.490057975053787231
0.965809345245361328 0.144125178456306458 0.235118582844734192
0.975084543228149414 0.133523672819137573 0.212516412138938904
0.949503660202026367 0.167256593704223633 0.271313279867172241
0.978102266788482666 0.0713379904627799988 0.251425683498382568
0.883955478668212891 0.0673273578286170959 0.568762779235839844
0.990409135818481445 0.0663639456033706665 0.214274093508720398
0.91748511791229248 0.176889240741729736 0.370575547218322754
0.961346685886383057 0.200750991702079773 0.205410361289978027
0.990370750427246094 0.0883555710315704346 0.197080701589584351
0.971987783908843994 0.0894052311778068542 0.257599979639053345
0.91681438684463501 0.182358980178833008 0.368505686521530151
0.954767227172851562 0.182142987847328186 0.242023095488548279
0.924721419811248779 0.122214354574680328 0.389491349458694458
0.92441105842590332 0.0727163031697273254 0.42951357364654541
1.01232707500457764 0.0856253653764724731 0.125960364937782288
0.977819740772247314 0.157466217875480652 0.184530571103096008
1.01737213134765625 0.149987280368804932 0.0584307238459587097
0.908350646495819092 0.106854788959026337 0.456220179796218872
1.00849676132202148 0.158773064613342285 0.0811285898089408875
0.978489398956298828 0.0768527984619140625 0.245790228247642517
0.877453863620758057 0.0798797905445098877 0.580572545528411865
0.889167904853820801 0.111535921692848206 0.516548097133636475
0.906969666481018066 0.0646422132849693298 0.49407687783241272
0.952148199081420898 0.167369246482849121 0.26239931583404541
0.958483517169952393 0.250113844871520996 0.17608487606048584
0.904686570167541504 0.0847054421901702881 0.485893130302429199
0.970155775547027588 0.0783305615186691284 0.272436439990997314
0.957734942436218262 0.224423155188560486 0.198818027973175049
0.913924515247344971 0.17123924195766449 0.386907756328582764
0.872771501541137695 0.110837444663047791 0.571814656257629395
1.02524077892303467 0.111834287643432617 0.0622229762375354767
0.947968065738677979 0.137866824865341187 0.299586206674575806
0.980296969413757324 0.17773224413394928 0.160301685333251953
1.0067671537399292 0.0890540555119514465 0.141814127564430237
0.961461782455444336 0.134776115417480469 0.256990551948547363
0.914555788040161133 0.112617440521717072 0.430974036455154419
0.949028134346008301 0.288199245929718018 0.177641004323959351
0.942279040813446045 0.139457255601882935 0.317318439483642578
0.949671030044555664 0.147103235125541687 0.286628216505050659
0.95995175838470459 0.0907252728939056396 0.296725720167160034
0.920309901237487793 0.149517998099327087 0.3827076256275177
0.945904672145843506 0.183598220348358154 0.27045208215713501
0.942744016647338867 0.176132485270500183 0.286879986524581909
1.00204527378082275 0.0668596401810646057 0.175052657723426819
0.9364737868309021 0.131878867745399475 0.342660278081893921
0.972234189510345459 0.175555989146232605 0.188922062516212463
0.879376590251922607 0.114784359931945801 0.546664178371429443
0.958906769752502441 0.083349667489528656 0.306022435426712036
0.948007583618164062 0.19101889431476593 0.257589787244796753
0.968130767345428467 0.102070324122905731 0.26049572229385376
0.907847285270690918 0.0921711772680282593 0.469465255737304688
0.889993250370025635 0.0932433679699897766 0.528201699256896973
0.930241882801055908 0.0656336098909378052 0.415634006261825562
1.02369356155395508 0.164918750524520874 0.0255749467760324478
1.00532221794128418 0.0834941864013671875 0.151015147566795349
0.958430111408233643 0.12914864718914032 0.271539956331253052
0.917174756526947021 0.127391189336776733 0.410597801208496094
1.01343727111816406 0.131491944193840027 0.0861295014619827271
1.00065267086029053 0.107121296226978302 0.147988408803939819
1.00583827495574951 0.0908472612500190735 0.143501222133636475
0.945877969264984131 0.123115621507167816 0.31817963719367981
0.970776498317718506 0.177326664328575134 0.192391961812973022
0.946406900882720947 0.123138152062892914 0.316396832466125488
0.933131754398345947 0.0767533406615257263 0.397231936454772949
0.90430063009262085 0.154334321618080139 0.43233877420425415
0.970026731491088867 0.0764922946691513062 0.274314910173416138
0.997285008430480957 0.0666568577289581299 0.191097795963287354
0.941452562808990479 0.0826061218976974487 0.364854604005813599
0.911098659038543701 0.123466797173023224 0.433965474367141724
0.90801471471786499 0.0720178186893463135 0.484780162572860718
0.951514720916748047 0.0757036805152893066 0.336712658405303955
0.932822525501251221 0.102398976683616638 0.378064364194869995
0.941607177257537842 0.0697833076119422913 0.374438375234603882
1.00701236724853516 0.100061133503913879 0.132326021790504456
0.997324526309967041 0.119808919727802277 0.149101376533508301
0.924372673034667969 0.0947079285979270935 0.412320196628570557
0.965874433517456055 0.182616159319877625 0.204584449529647827
0.901939690113067627 0.143237113952636719 0.448958039283752441
0.993673264980316162 0.0903290286660194397 0.184505462646484375
0.914904475212097168 0.140123873949050903 0.40814518928527832
0.952419102191925049 0.163715243339538574 0.264373481273651123
0.981960415840148926 0.133816584944725037 0.189340114593505859
0.978181302547454834 0.177642107009887695 0.167432859539985657
0.917678117752075195 0.142074793577194214 0.397352725267410278
0.944305181503295898 0.190861165523529053 0.270069330930709839
0.933649003505706787 0.15925009548664093 0.330528199672698975
1.0069739818572998 0.122052758932113647 0.115132629871368408
0.904853999614715576 0.0645520910620689392 0.501208066940307617
1.01167035102844238 0.158908247947692871 0.070431828498840332
0.917458415031433105 0.116406641900539398 0.418303102254867554
0.962106943130493164 0.143967464566230774 0.247598141431808472
0.962957859039306641 0.111013822257518768 0.270714044570922852
0.881492197513580322 0.114874489605426788 0.539533019065856934
0.87006300687789917 0.147377490997314453 0.55207294225692749
0.898366332054138184 0.144917666912078857 0.459559112787246704
1.00365877151489258 0.127409845590591431 0.121976733207702637
0.993493080139160156 0.117812931537628174 0.163459405303001404
0.913408398628234863 0.163886174559593201 0.394421666860580444
0.961616396903991699 0.121953301131725311 0.266574323177337646
0.985661685466766357 0.0588306225836277008 0.23605036735534668
0.912234365940093994 0.154672294855117798 0.405596882104873657
0.968698084354400635 0.0801012292504310608 0.27590632438659668
0.97425919771194458 0.151816233992576599 0.200862765312194824
0.94035637378692627 0.104552686214447021 0.351226776838302612
0.930383741855621338 0.0601413361728191376 0.419486641883850098
1.00294852256774902 0.0797275230288505554 0.161903291940689087
0.952741086483001709 0.130739077925682068 0.289272189140319824
0.938537120819091797 0.0861474722623825073 0.371794402599334717
0.974711358547210693 0.195822015404701233 0.164693191647529602
0.97806394100189209 0.0933296158909797668 0.234232276678085327
1.01868796348571777 0.153708890080451965 0.0511081777513027191
0.900340139865875244 0.150500059127807617 0.448575288057327271
0.989441990852355957 0.0901487767696380615 0.198767796158790588
0.985701203346252441 0.111982680857181549 0.194053962826728821
0.949761688709259033 0.170933127403259277 0.267556339502334595
0.9976348876953125 0.169306978583335876 0.109079144895076752
0.984308540821075439 0.152244329452514648 0.166989713907241821
0.926140725612640381 0.142435312271118164 0.368828058242797852
0.954482436180114746 0.117983855307102203 0.293507605791091919
0.990230083465576172 0.168991521000862122 0.134038239717483521
0.962932288646697998 0.125674903392791748 0.259251773357391357
0.951450765132904053 0.112356394529342651 0.308057010173797607
0.993351280689239502 0.123305201530456543 0.159606754779815674
0.879621803760528564 0.125791445374488831 0.537176072597503662
1.00942564010620117 0.156979858875274658 0.0794414877891540527
0.972825944423675537 0.063782133162021637 0.274984747171401978
1.00423991680145264 0.173253893852233887 0.0839286670088768005
0.988177239894866943 0.0571050122380256653 0.229014888405799866
1.00888395309448242 0.164287865161895752 0.0754931420087814331
0.967782080173492432 0.0745638981461524963 0.283324569463729858
0.963163614273071289 0.0688688382506370544 0.303222358226776123
0.917020142078399658 0.140213996171951294 0.401014000177383423
1.01854622364044189 0.159201160073280334 0.0472555235028266907
0.982398688793182373 0.110009223222732544 0.206629186868667603
1.02240324020385742 0.146536067128181458 0.0443597584962844849
0.878576815128326416 0.11841583251953125 0.546472787857055664
0.983250737190246582 0.152199268341064453 0.170555293560028076
0.978748559951782227 0.155673012137413025 0.182843461632728577
0.91705852746963501 0.118222378194332123 0.418207406997680664
0.987648308277130127 0.0570824779570102692 0.230797678232192993
0.954663753509521484 0.165643632411956787 0.25536385178565979
0.922038435935974121 0.144093319773674011 0.381211906671524048
1.0154494047164917 0.115082718431949615 0.0923390761017799377
1.01681768894195557 0.164625838398933411 0.0487512536346912384
0.966997325420379639 0.221152201294898987 0.170484721660614014
0.963150858879089355 0.0761993825435638428 0.297491222620010376
0.901694416999816895 0.132230043411254883 0.458446145057678223
1.00384008884429932 0.175069630146026611 0.0838329792022705078
1.00805747509002686 0.107436738908290863 0.123029306530952454
0.890445411205291748 0.137249141931533813 0.492032140493392944
1.01619803905487061 0.140773415565490723 0.0696059241890907288
0.913563013076782227 0.151063352823257446 0.404005467891693115
0.962687015533447266 0.114667825400829315 0.268739879131317139
0.910944044589996338 0.136289611458778381 0.42438170313835144
0.977523326873779297 0.175781309604644775 0.171094134449958801
0.874242007732391357 0.101736225187778473 0.574075877666473389
0.918696463108062744 0.0889678075909614563 0.435783565044403076
0.914659261703491211 0.129116788506507874 0.417633265256881714
0.925792038440704346 0.114928878843784332 0.39165690541267395
0.944200575351715088 0.0992181301116943359 0.34259989857673645
0.960042417049407959 0.11455516517162323 0.27765384316444397
0.958520770072937012 0.15297853946685791 0.252468079328536987
0.945568740367889404 0.148761257529258728 0.299012064933776855
0.936176180839538574 0.0750502645969390869 0.388413667678833008
0.969667494297027588 0.206603765487670898 0.173033013939857483
0.976478278636932373 0.168405711650848389 0.180390849709510803
0.925857126712799072 0.153419852256774902 0.361122757196426392
0.954368472099304199 0.259102404117584229 0.182737603783607483
0.921096861362457275 0.15321706235408783 0.377167880535125732
0.992537617683410645 0.0591235309839248657 0.212874054908752441
0.972116827964782715 0.0912434980273246765 0.255721479654312134
0.943762302398681641 0.123025491833686829 0.325310796499252319
0.9143105149269104 0.101610362529754639 0.440462112426757812
1.00582551956176758 0.0981777980923652649 0.137770086526870728
0.950018644332885742 0.099465981125831604 0.322989165782928467
0.942626655101776123 0.0918199941515922546 0.353679388761520386
1.01681649684906006 0.0894821509718894958 0.10794106125831604
1.01284325122833252 0.0929784402251243591 0.118446439504623413
1.00630331039428711 0.127522498369216919 0.113062769174575806
0.965668678283691406 0.224761143326759338 0.172076135873794556
0.923714756965637207 0.0928471237421035767 0.415981471538543701
0.890961527824401855 0.144602224230766296 0.484518200159072876
0.977832555770874023 0.15013568103313446 0.190261706709861755
0.958352267742156982 0.0979882180690765381 0.296342968940734863
0.94567108154296875 0.0901169180870056152 0.344861119985580444
0.914890587329864502 0.0723107308149337769 0.461603850126266479
0.975898206233978271 0.19770534336566925 0.159249112010002136
0.997169911861419678 0.132631734013557434 0.139517590403556824
0.902403533458709717 0.104768671095371246 0.477709382772445679
0.979457676410675049 0.128211647272109985 0.20210672914981842
0.954755544662475586 0.264617204666137695 0.177102163434028625
0.974129021167755127 0.0748342797160148621 0.261931061744689941
0.963203132152557373 0.122020900249481201 0.26122593879699707
0.945542037487030029 0.088278651237487793 0.346739619970321655
0.961436212062835693 0.149437204003334045 0.245528280735015869
0.929649055004119873 0.102263785898685455 0.388761132955551147
0.978514969348907471 0.0621917136013507843 0.257252514362335205
0.943542659282684326 0.097357332706451416 0.346261173486709595
0.999607622623443604 0.0997456908226013184 0.157285124063491821
0.95848238468170166 0.174970164895057678 0.235274672508239746
0.917420029640197754 0.138398259878158569 0.401109695434570312
0.977781414985656738 0.17945784330368042 0.167337179183959961
1.02119076251983643 0.159313812851905823 0.0383415594696998596
1.00834226608276367 0.171595871448516846 0.0715448036789894104
0.979727387428283691 0.0494139641523361206 0.263270705938339233
0.939518213272094727 0.130175784230232239 0.333842009305953979
0.908672630786895752 0.0738786235451698303 0.481118887662887573
0.975871503353118896 0.137222737073898315 0.206976652145385742
1.00573492050170898 0.0743479058146476746 0.156841978430747986
0.956430673599243164 0.138227343559265137 0.271061509847640991
0.920838832855224609 0.149540528655052185 0.380924850702285767
0.946742832660675049 0.157975122332572937 0.28783687949180603
0.9467812180519104 0.135983496904373169 0.305030256509780884
0.937738478183746338 0.164922624826431274 0.312413215637207031
0.937195658683776855 0.0970869511365890503 0.367654681205749512
0.878667473793029785 0.14224572479724884 0.5274009108543396
0.924683034420013428 0.1442059725522995 0.372297942638397217
0.980696797370910645 0.175916492938995361 0.160397380590438843
0.91802680492401123 0.169581234455108643 0.374523907899856567
0.87416529655456543 0.145719483494758606 0.539689123630523682
0.909589767456054688 0.15455964207649231 0.414510846138000488
0.90125507116317749 0.0808937177062034607 0.500346839427947998
0.932577252388000488 0.0913918986916542053 0.387552469968795776
0.983056604862213135 0.111870020627975464 0.202967926859855652
0.883195221424102783 0.124110892415046692 0.526575028896331787
0.969202518463134766 0.16992853581905365 0.203471466898918152
0.966002345085144043 0.109310738742351532 0.26189577579498291
1.03290367126464844 0.115826264023780823 0.0335069149732589722
0.974399864673614502 0.0711802691221237183 0.263905227184295654
1.02536976337432861 0.113672554492950439 0.0603444948792457581
0.902559280395507812 0.167089536786079407 0.428103357553482056
0.905873477458953857 0.0865887776017189026 0.480449080467224121
0.956329524517059326 0.272015362977981567 0.166022643446922302
0.984334170818328857 0.137583240866661072 0.178451970219612122
0.916697025299072266 0.0980464890599250793 0.435305118560791016
0.945529282093048096 0.0956091880798339844 0.341008484363555908
0.961643099784851074 0.182435899972915649 0.218846783041954041
1.0223381519317627 0.108045093715190887 0.0748938992619514465
0.885194599628448486 0.115032210946083069 0.527053475379943848
0.922528982162475586 0.166107475757598877 0.362235724925994873
0.875686943531036377 0.107296094298362732 0.564874887466430664
1.00488400459289551 0.10730154812335968 0.133726060390472412
0.955271661281585693 0.271970301866531372 0.169588238000869751
0.893579363822937012 0.0842322781682014465 0.523331761360168457
0.964660882949829102 0.120250225067138672 0.257756054401397705
0.960880577564239502 0.0889320671558380127 0.295038610696792603
0.984345793724060059 0.055109020322561264 0.243372917175292969
0.923444986343383789 0.171644806861877441 0.354817479848861694
0.899410247802734375 0.0771495848894119263 0.509452223777770996
0.917110800743103027 0.164043888449668884 0.381942123174667358
0.95019996166229248 0.147125765681266785 0.284845411777496338
0.955321729183197021 0.167504444718360901 0.251702576875686646
0.97303396463394165 0.171924516558647156 0.189113438129425049
0.96098405122756958 0.105431422591209412 0.281697869300842285
0.957990765571594238 0.0778123289346694946 0.313440680503845215
0.92699277400970459 0.184625357389450073 0.332754164934158325
0.908982992172241211 0.123376674950122833 0.441096633672714233
1.00728440284729004 0.17155081033706665 0.0751103907823562622
0.962648630142211914 0.136659443378448486 0.251546472311019897
0.893179476261138916 0.0860480144619941711 0.523236095905303955
1.00160813331604004 0.165810689330101013 0.0985737591981887817
0.983043849468231201 0.119200564920902252 0.197236791253089905
0.984449267387390137 0.0716083720326423645 0.230032160878181458
0.941557109355926514 0.174249157309532166 0.292324036359786987
0.996602654457092285 0.154600828886032104 0.124106995761394501
0.975858747959136963 0.144553273916244507 0.201245531439781189
1.00396907329559326 0.176907896995544434 0.0819544941186904907
0.90088188648223877 0.143192052841186523 0.452523618936538696
0.923625171184539795 0.144160911440849304 0.375863522291183472
0.990176677703857422 0.0480263270437717438 0.229493319988250732
0.897178351879119873 0.067890651524066925 0.524192988872528076
0.946742832660675049 0.157975122332572937 0.28783687949180603
1.02397716045379639 0.153934195637702942 0.033280249685049057
0.9767875075340271 0.142760083079338074 0.199558421969413757
0.931171834468841553 0.138984084129333496 0.354757070541381836
0.968414425849914551 0.091085776686668396 0.26820102334022522
1.00600576400756836 0.0706939026713371277 0.158816143870353699
0.930849790573120117 0.171960249543190002 0.329858392477035522
0.909911811351776123 0.121583469212055206 0.439409554004669189
0.939996004104614258 0.159520477056503296 0.309134691953659058
0.931597292423248291 0.122507266700267792 0.36631503701210022
1.01662349700927734 0.124296590685844421 0.0811638757586479187
0.92539215087890625 0.116744615137577057 0.391561210155487061
0.899798452854156494 0.157808080315589905 0.444626957178115845
0.913885056972503662 0.11808718740940094 0.428904175758361816
0.954806685447692871 0.235295042395591736 0.20002669095993042
0.933236300945281982 0.16839638352394104 0.324701398611068726
0.947941362857818604 0.0773842334747314453 0.347313731908798218
0.923316001892089844 0.169806540012359619 0.356695979833602905
0.967795968055725098 0.142377033829689026 0.229865893721580505
0.953605949878692627 0.165598571300506592 0.258929431438446045
0.988449215888977051 0.128594696521759033 0.171799242496490479
0.961267650127410889 0.0944468751549720764 0.289403170347213745
0.897630512714385986 0.111896432936191559 0.48802340030670166
0.979457676410675049 0.128211647272109985 0.20210672914981842
0.917239844799041748 0.165882155299186707 0.380063652992248535
1.0111541748046875 0.151555180549621582 0.0779457539319992065
0.89267730712890625 0.146508082747459412 0.477291345596313477
0.975909888744354248 0.115231111645698547 0.224170058965682983
0.932397067546844482 0.118875794112682343 0.366506427526473999
1.0131535530090332 0.142476499080657959 0.0784242004156112671
0.978476583957672119 0.0841833427548408508 0.240059107542037964
0.997066497802734375 0.116132378578186035 0.152858346700668335
0.983353078365325928 0.0935549363493919373 0.216404348611831665
1.0131535530090332 0.142476499080657959 0.0784242004156112671
0.959706485271453857 0.0797181949019432068 0.306213825941085815
0.999387919902801514 0.0740775242447853088 0.178235486149787903
0.935634493827819824 0.0823582783341407776 0.384465306997299194
0.998162686824798584 0.0941858217120170593 0.166486158967018127
0.992242276668548584 0.152582302689552307 0.140247821807861328
0.903513669967651367 0.150635257363319397 0.437878519296646118
0.928487777709960938 0.0857193693518638611 0.40566745400428772
1.01805567741394043 0.137187004089355469 0.0662317126989364624
1.00529658794403076 0.0981552675366401672 0.139552891254425049
0.923586845397949219 0.166152536869049072 0.358670145273208618
0.98123854398727417 0.168608486652374268 0.164345726370811462
0.984849154949188232 0.0697926357388496399 0.230127856135368347
0.894598841667175293 0.10626896470785141 0.502572774887084961
1.00965702533721924 0.100173786282539368 0.123412065207958221
0.951928555965423584 0.141701087355613708 0.283349692821502686
1.00712859630584717 0.10922994464635849 0.124716416001319885
0.96304851770401001 0.134843707084655762 0.251642167568206787
1.00248467922210693 0.118195965886116028 0.133151933550834656
0.911536931991577148 0.0996594429016113281 0.451254576444625854
0.947555363178253174 0.147013112902641296 0.293759375810623169
1.00071775913238525 0.145612269639968872 0.117454268038272858
0.903810083866119385 0.132320165634155273 0.451314955949783325
0.938847482204437256 0.13564552366733551 0.331772148609161377
1.02084207534790039 0.131807386875152588 0.0611704029142856598
1.0140300989151001 0.0948617681860923767 0.113002367317676544
0.892366945743560791 0.0970100313425064087 0.517313599586486816
1.01176095008850098 0.182738140225410461 0.0513599514961242676
0.965436160564422607 0.206423521041870117 0.18729536235332489
0.96973031759262085 0.0948073789477348328 0.260878473520278931
0.931636810302734375 0.175659328699111938 0.324318617582321167
0.979199588298797607 0.124535113573074341 0.205863684415817261
0.970247566699981689 0.177304133772850037 0.19417475163936615
0.992099344730377197 0.0829308927059173584 0.195584967732429504
0.989481449127197266 0.143300831317901611 0.156771391630172729
0.94952923059463501 0.152595505118370056 0.282775551080703735
0.90166771411895752 0.0717474371194839478 0.506173670291900635
0.897063255310058594 0.133865520358085632 0.47261279821395874
0.961411774158477783 0.23924197256565094 0.174876213073730469
0.995930790901184082 0.0849268808960914612 0.181226938962936401
0.97580641508102417 0.0987317636609077454 0.237510800361633301
0.926062881946563721 0.111274868249893188 0.393631070852279663
0.983558833599090576 0.0514099523425102234 0.248912662267684937
0.871339380741119385 0.0979470312595367432 0.586746811866760254
0.990500926971435547 0.165337517857551575 0.136012405157089233
0.930990517139434814 0.0913242995738983154 0.392900854349136353
0.961371123790740967 0.110946223139762878 0.276062428951263428
1.0163271427154541 0.142611682415008545 0.0677274391055107117
0.935919284820556641 0.14651741087436676 0.332980811595916748
0.912659823894500732 0.13819548487663269 0.417154848575592041
0.965668678283691406 0.224761143326759338 0.172076135873794556
0.986062705516815186 0.132158562541007996 0.176956251263618469
0.92693936824798584 0.0636601522564888 0.428209245204925537
0.987494826316833496 0.145048975944519043 0.162024080753326416
0.926295340061187744 0.12961249053478241 0.378411829471588135
1.02807950973510742 0.152276188135147095 0.0208963863551616669
0.918194234371185303 0.149427875876426697 0.389838814735412598
0.872282087802886963 0.163966968655586243 0.531601011753082275
0.997260570526123047 0.156461626291275024 0.120445720851421356
0.915536880493164062 0.1566457599401474 0.393021643161773682
0.883724093437194824 0.12413342297077179 0.524792194366455078
0.985817432403564453 0.12115149199962616 0.186444342136383057
0.943310141563415527 0.0790197104215621948 0.361480385065078735
1.0159144401550293 0.151757955551147461 0.0619006231427192688
0.899204492568969727 0.11929456889629364 0.476943880319595337
0.904996931552886963 0.134203493595123291 0.445870906114578247
0.89479297399520874 0.146598204970359802 0.470160186290740967
1.00385284423828125 0.167739078402519226 0.089564107358455658
0.92158740758895874 0.175231218338012695 0.358191698789596558
0.968106329441070557 0.191875085234642029 0.189843654632568359
0.886097848415374756 0.127900078892707825 0.513904094696044922
0.959450721740722656 0.226329028606414795 0.191591158509254456
0.952509760856628418 0.187545135617256165 0.245301619172096252
0.905396819114685059 0.132387757301330566 0.445966571569442749
0.986385881900787354 0.174326077103614807 0.14266514778137207
0.895953118801116943 0.0879989415407180786 0.512443661689758301
0.90641629695892334 0.15442444384098053 0.425207614898681641
0.932836413383483887 0.170212119817733765 0.324605703353881836
0.926798701286315918 0.144296109676361084 0.365166783332824707
1.01747560501098633 0.166486635804176331 0.0450899787247180939
0.926411569118499756 0.138781294226646423 0.370802223682403564
1.02934300899505615 0.110176272690296173 0.0498391129076480865
0.979315876960754395 0.133703917264938354 0.19825407862663269
1.01732099056243896 0.179309457540512085 0.0355061963200569153
1.02126753330230713 0.115330569446086884 0.0727283582091331482
0.944510936737060547 0.148716181516647339 0.30257764458656311
0.948420226573944092 0.18187260627746582 0.26341661810874939
0.941375792026519775 0.126589372754096985 0.330467820167541504
0.992448031902313232 0.11043732613325119 0.1727561354637146
0.946575403213500977 0.178128480911254883 0.272521942853927612
0.934073328971862793 0.067629598081111908 0.401275962591171265
0.879105687141418457 0.118438363075256348 0.54469001293182373
0.872113585472106934 0.108976647257804871 0.575475931167602539
0.958661496639251709 0.0723425894975662231 0.315510541200637817
1.00398075580596924 0.0944336652755737305 0.146875441074371338
0.897114396095275879 0.104543358087539673 0.495537310838699341
0.947013676166534424 0.15432111918926239 0.289811044931411743
0.919458985328674316 0.182471632957458496 0.35959172248840332
0.874783754348754883 0.0944282189011573792 0.578024208545684814
0.870424509048461914 0.167553380131721497 0.534975230693817139
0.915729880332946777 0.121831320226192474 0.419798821210861206
0.973626852035522461 0.135294348001480103 0.215986311435699463
0.935997128486633301 0.177677839994430542 0.308177798986434937
0.884511113166809082 0.127832487225532532 0.519252479076385498
0.986913621425628662 0.0992049276828765869 0.200072154402732849
1.02637648582458496 0.143039777874946594 0.0338543802499771118
0.890445411205291748 0.137249141931533813 0.492032140493392944
0.97069859504699707 0.146166235208511353 0.217194974422454834
0.982424259185791016 0.0953481420874595642 0.218091458082199097
0.87161022424697876 0.0942930281162261963 0.588720977306365967
0.928114593029022217 0.148017704486846924 0.357844233512878418
0.959616959095001221 0.131031990051269531 0.266095876693725586
0.883104562759399414 0.100281000137329102 0.545646905899047852
0.953643202781677246 0.0684632658958435059 0.335312634706497192
0.919226467609405518 0.164134025573730469 0.374810963869094849
0.951956391334533691 0.277327358722686768 0.176432341337203979
0.947348475456237793 0.114014409482479095 0.320440858602523804
0.964907228946685791 0.20640099048614502 0.189078152179718018
0.930230259895324707 0.148107826709747314 0.350713044404983521
0.894895255565643311 0.0879538804292678833 0.516009211540222168
0.990487039089202881 0.0975243821740150452 0.189471080899238586
0.952227234840393066 0.273673355579376221 0.178406506776809692
0.92525029182434082 0.122236885130405426 0.387708544731140137
0.885116755962371826 0.0838717743754386902 0.551856458187103271
1.01112854480743408 0.166216254234313965 0.0664834901690483093
0.967034578323364258 0.124016888439655304 0.246867924928665161
0.948266744613647461 0.269839107990264893 0.194643020629882812
1.00264036655426025 0.180516839027404785 0.0835459157824516296
0.994124352931976318 0.0591911263763904572 0.207525685429573059
1.02614402770996094 0.12470216304063797 0.0490736067295074463
0.919664740562438965 0.140326663851737976 0.392100036144256592
0.919432282447814941 0.121989041566848755 0.40731927752494812
0.98878401517868042 0.0882879793643951416 0.202429071068763733
1.01112747192382812 0.091072574257850647 0.125673294067382812
0.939505457878112793 0.13750632107257843 0.328110873699188232
0.999658763408660889 0.070423521101474762 0.180209651589393616
0.890703439712524414 0.140925690531730652 0.48827517032623291
0.955321729183197021 0.167504444718360901 0.251702576875686646
0.951863467693328857 0.103210113942623138 0.313883841037750244
0.941543221473693848 0.106436014175415039 0.345782727003097534
0.897578239440917969 0.0660749152302742004 0.524288654327392578
0.968673586845397949 0.169906005263328552 0.205254271626472473
0.88923180103302002 0.0748832151293754578 0.545203745365142822
0.991080999374389648 0.136037886142730713 0.1571541428565979
0.944343507289886475 0.168869540095329285 0.28726273775100708
0.937583863735198975 0.177745446562767029 0.30282941460609436
0.877299249172210693 0.0927026122808456421 0.570988774299621582
0.963191449642181396 0.20449511706829071 0.196305006742477417
0.916193664073944092 0.083362869918346405 0.448550164699554443
0.896598279476165771 0.0971902832388877869 0.503051221370697021
0.880356550216674805 0.0836689919233322144 0.567901611328125
1.0203782320022583 0.170275837182998657 0.0324190519750118256
0.989532649517059326 0.113978669047355652 0.179695919156074524
1.00929653644561768 0.155141592025756836 0.0813199654221534729
0.944729506969451904 0.0992406681180000305 0.340817093849182129
1.02077805995941162 0.168460100889205933 0.0325147397816181183
1.00666368007659912 0.0725547000765800476 0.155154868960380554
0.889554977416992188 0.117050729691982269 0.510912656784057617
0.896379709243774414 0.146665811538696289 0.464811801910400391
1.03263282775878906 0.11948026716709137 0.0315327458083629608
0.937700152397155762 0.186914250254631042 0.29521980881690979
0.939853012561798096 0.0898690670728683472 0.364471852779388428
0.949696660041809082 0.13244214653968811 0.298090457916259766
0.918296575546264648 0.0907835438847541809 0.435687869787216187
0.903216063976287842 0.0938066616654396057 0.483631908893585205
1.01111471652984619 0.0984031185507774353 0.119942165911197662
0.894818544387817383 0.131937131285667419 0.481622427701950073
0.98745650053024292 0.167040601372718811 0.144830688834190369
1.0040585994720459 0.125594109296798706 0.122072421014308929
0.991299569606781006 0.0865623652935028076 0.195393592119216919
1.01908791065216064 0.151893153786659241 0.0512038655579090118
0.961796581745147705 0.0944694057106971741 0.287620365619659424
0.923986732959747314 0.164336800575256348 0.35876581072807312
1.01150178909301758 0.103917919099330902 0.114306718111038208
0.89292144775390625 0.0823714807629585266 0.526993036270141602
0.93600994348526001 0.170347303152084351 0.313908934593200684
0.988256216049194336 0.163409128785133362 0.145022064447402954
0.980593383312225342 0.159417152404785156 0.17373812198638916
0.87836986780166626 0.0854171290993690491 0.573154270648956299
0.899449765682220459 0.130301639437675476 0.467455774545669556
0.959848344326019287 0.0742259249091148376 0.310066461563110352
0.877053976058959961 0.0816955342888832092 0.580476820468902588
0.919650793075561523 0.0725135132670402527 0.445558726787567139
1.00797951221466064 0.0762763023376464844 0.147832319140434265
0.954381227493286133 0.251771867275238037 0.18846873939037323
0.990617156028747559 0.174506336450576782 0.128402799367904663
1.01952612400054932 0.128085792064666748 0.0684929490089416504
0.99340355396270752 0.169126719236373901 0.123341485857963562
0.963604152202606201 0.195348843932151794 0.202131837606430054
0.905951321125030518 0.117749214172363281 0.45564606785774231
0.888548314571380615 0.0876834988594055176 0.537402749061584473
0.979198455810546875 0.0493914298713207245 0.265053480863571167
0.963836610317230225 0.213686466217041016 0.186912611126899719
0.932216882705688477 0.146359696984291077 0.345460355281829834
0.91037672758102417 0.158258706331253052 0.408971101045608521
0.917768776416778564 0.165904685854911804 0.378280848264694214
0.89210885763168335 0.0933334976434707642 0.521070539951324463
1.00177443027496338 0.0705136507749557495 0.173078477382659912
0.976515531539916992 0.0712703987956047058 0.256774067878723145
0.91681438684463501 0.182358980178833008 0.368505686521530151
0.903977513313293457 0.112166814506053925 0.466629892587661743
0.990254521369934082 0.079186759889125824 0.204690307378768921
0.972414374351501465 0.148072093725204468 0.209968119859695435
1.03277456760406494 0.113987997174263 0.0353853963315486908
0.996110975742340088 0.057442985475063324 0.202272981405258179
0.885103940963745117 0.0912023186683654785 0.546125352382659912
0.905590951442718506 0.172717005014419556 0.413553953170776367
0.990305721759796143 0.0498645976185798645 0.227614834904670715
0.92017972469329834 0.0725360512733459473 0.443775922060012817
0.976438820362091064 0.115253649652004242 0.222387269139289856
0.944446980953216553 0.185368895530700684 0.273921996355056763
0.921341001987457275 0.0890804603695869446 0.426869601011276245
0.952161014080047607 0.16003870964050293 0.268130451440811157
0.892819106578826904 0.141015812754631042 0.4811440110206604
0.961862802505493164 0.208104059100151062 0.197896435856819153
0.9210701584815979 0.0927344709634780884 0.424895435571670532
0.940357506275177002 0.179696366190910339 0.292036980390548706
1.00987660884857178 0.12584194540977478 0.10246170312166214
0.942589402198791504 0.188955307006835938 0.277296185493469238
0.989997625350952148 0.150653913617134094 0.149257466197013855
0.968222558498382568 0.201043903827667236 0.182234048843383789
0.975483298301696777 0.0565642528235912323 0.271801918745040894
0.981006026268005371 0.150270864367485046 0.179564952850341797
0.959435641765594482 0.0833721980452537537 0.304239630699157715
0.933790802955627441 0.153757825493812561 0.334380865097045898
0.998756647109985352 0.132699325680732727 0.134169220924377441
0.965823233127593994 0.211938321590423584 0.181659922003746033
0.953630387783050537 0.0757938101887702942 0.329581499099731445
0.959062457084655762 0.145670533180236816 0.256416410207748413
0.896082162857055664 0.0898372083902359009 0.51056516170501709
0.896959781646728516 0.11736617237329483 0.485953539609909058
0.877002835273742676 0.111017696559429169 0.557552337646484375
0.985044360160827637 0.18526555597782135 0.138525426387786865
1.00377500057220459 0.136578649282455444 0.114367119967937469
0.939776301383972168 0.133852317929267883 0.330085039138793945
0.961153686046600342 0.235565423965454102 0.178633168339729309
0.981057226657867432 0.120948702096939087 0.202489480376243591
0.954483568668365479 0.193127542734146118 0.234317794442176819
0.973859310150146484 0.153631970286369324 0.200767084956169128
0.946703314781188965 0.104823067784309387 0.329833269119262695
1.0086897611618042 0.123958617448806763 0.107905767858028412
0.955759942531585693 0.143697082996368408 0.268991649150848389
0.909640908241271973 0.12523747980594635 0.437435388565063477
0.927868187427520752 0.0618669427931308746 0.426522135734558105
0.904635429382324219 0.114027611911296844 0.462968617677688599
0.973214149475097656 0.144440621137619019 0.21015949547290802
0.944381892681121826 0.146877914667129517 0.304456144571304321
0.983558833599090576 0.0514099523425102234 0.248912662267684937
0.889115571975708008 0.0657144039869308472 0.552813351154327393
0.939596116542816162 0.161336213350296021 0.309038996696472168
0.95058596134185791 0.0774968862533569336 0.338399767875671387
0.921935021877288818 0.127593964338302612 0.394552648067474365
0.864695966243743896 0.115991741418838501 0.594703912734985352
0.890922009944915771 0.0914501622319221497 0.526514589786529541
0.998498618602752686 0.129022791981697083 0.137926176190376282
1.0305171012878418 0.119390144944190979 0.038663916289806366
0.891180098056793213 0.0951267033815383911 0.522757649421691895
0.923044025897979736 0.0983168706297874451 0.413911610841751099
0.933958232402801514 0.133604466915130615 0.349695771932601929
0.956224918365478516 0.180372312664985657 0.23855319619178772
0.988114416599273682 0.168901398777961731 0.141169413924217224
1.01744997501373291 0.181147724390029907 0.0336277149617671967
0.924863219261169434 0.116722084581851959 0.393343985080718994
0.899811267852783203 0.15047752857208252 0.450358062982559204
0.939982056617736816 0.0917073413729667664 0.362593352794647217
0.992900252342224121 0.154443100094795227 0.136586546897888184
0.96076434850692749 0.0797632560133934021 0.302648216485977173
1.01101124286651611 0.0819037631154060364 0.133282914757728577
0.949554800987243652 0.137934431433677673 0.294237822294235229
1.01262474060058594 0.142453953623771667 0.0802069902420043945
0.92482370138168335 0.0635700225830078125 0.435340404510498047
0.984643399715423584 0.111937619745731354 0.197619542479515076
0.951735556125640869 0.176515534520149231 0.256572514772415161
0.980772435665130615 0.0567895695567131042 0.253973990678787231
0.872526228427886963 0.0998303666710853577 0.581302762031555176
1.02131974697113037 0.161152079701423645 0.036463078111410141
0.919226467609405518 0.164134025573730469 0.374810963869094849
0.883942663669586182 0.0746579021215438843 0.563031673431396484
1.01175987720489502 0.107594460248947144 0.110549755394458771
0.974582314491271973 0.193983733654022217 0.166571661829948425
0.870243191719055176 0.119893595576286316 0.573118984699249268
0.901538670063018799 0.0699091702699661255 0.508052170276641846
0.991132140159606934 0.106715723872184753 0.180078685283660889
0.945814013481140137 0.159768328070640564 0.289523959159851074
0.95210874080657959 0.114217191934585571 0.304395735263824463
0.966093003749847412 0.133140638470649719 0.242823898792266846
0.927649617195129395 0.111342467367649078 0.388282686471939087
0.977161824703216553 0.155605420470237732 0.188191846013069153
0.917678117752075195 0.142074793577194214 0.397352725267410278
1.0091547966003418 0.160633862018585205 0.0774673148989677429
0.94186633825302124 0.148603528738021851 0.311491608619689941
0.99011385440826416 0.159822717308998108 0.141647860407829285
0.881337583065032959 0.127697303891181946 0.52994924783706665
0.904815614223480225 0.0865437164902687073 0.484014660120010376
0.975640177726745605 0.194028809666633606 0.16300608217716217
0.969524562358856201 0.13695235550403595 0.228370174765586853
0.917716503143310547 0.120083175599575043 0.41454613208770752
0.988978147506713867 0.128617227077484131 0.170016452670097351
0.988694489002227783 0.139601767063140869 0.162311151623725891
0.953153789043426514 0.121592797338962555 0.295099020004272461
0.967861056327819824 0.180868014693260193 0.199331760406494141
0.981405913829803467 0.148455128073692322 0.179660633206367493
0.957630336284637451 0.132780119776725769 0.271348565816879272
0.876731991767883301 0.114671699702739716 0.555578112602233887
0.932719051837921143 0.0858996212482452393 0.391405105590820312
0.961966216564178467 0.224603414535522461 0.184555679559707642
0.958211541175842285 0.178624182939529419 0.233300507068634033
0.89368283748626709 0.100731633603572845 0.509991049766540527
0.982540488243103027 0.104516945779323578 0.210481837391853333
0.92905503511428833 0.0637502744793891907 0.42107805609703064
1.00116872787475586 0.114474363625049591 0.140474483370780945
0.969640791416168213 0.146121174097061157 0.220760554075241089
1.01000571250915527 0.127680212259292603 0.100583218038082123
0.944304049015045166 0.115717485547065735 0.329259157180786133
0.868823826313018799 0.0996726453304290771 0.593782305717468262
0.932939887046813965 0.18671146035194397 0.311264961957931519
0.994860172271728516 0.0922123640775680542 0.179061397910118103
0.901565372943878174 0.130391776561737061 0.460324615240097046
0.939182281494140625 0.0953388139605522156 0.362401992082595825
0.961462914943695068 0.209919795393943787 0.197800740599632263
0.980296969413757324 0.17773224413394928 0.160301685333251953
0.868850529193878174 0.160155251622200012 0.54605478048324585
1.01532042026519775 0.113244451582431793 0.0942175611853599548
0.912750482559204102 0.162025377154350281 0.398082941770553589
0.959412336349487305 0.248320654034614563 0.174397766590118408
1.02423524856567383 0.15761074423789978 0.0295232851058244705
0.967886626720428467 0.166206926107406616 0.210794016718864441
0.956934034824371338 0.152910947799682617 0.257816463708877563
0.945103824138641357 0.112086012959480286 0.329450517892837524
0.946406900882720947 0.123138152062892914 0.316396832466125488
0.962997376918792725 0.164165884256362915 0.228717640042304993
1.01106357574462891 0.127725288271903992 0.0970176383852958679
0.876526236534118652 0.156816676259040833 0.523069858551025391
0.95452195405960083 0.17113591730594635 0.251511186361312866
0.910944044589996338 0.136289611458778381 0.42438170313835144
1.0305171012878418 0.119390144944190979 0.038663916289806366
0.919161379337310791 0.125643044710159302 0.405345112085342407
1.01034045219421387 0.0873735100030899048 0.131213054060935974
0.894393086433410645 0.148413956165313721 0.470064491033554077
0.962442874908447266 0.1788044273853302 0.219038158655166626
0.956548094749450684 0.222539827227592468 0.204262092709541321
1.01258516311645508 0.0893018990755081177 0.12220340222120285
0.990784585475921631 0.154352977871894836 0.143717721104621887
0.95363152027130127 0.150937497615814209 0.270391702651977539
0.958675384521484375 0.14015573263168335 0.262051850557327271
0.950227797031402588 0.282752037048339844 0.177928060293197632
1.01383709907531738 0.129676207900047302 0.0862251892685890198
0.962610304355621338 0.158651068806648254 0.23435308039188385
0.958728790283203125 0.26112094521522522 0.166596770286560059
0.899204492568969727 0.11929456889629364 0.476943880319595337
0.94930952787399292 0.126927345991134644 0.303725928068161011
0.959035754203796387 0.0851879343390464783 0.304143965244293213
0.937802433967590332 0.128269925713539124 0.341068863868713379
0.944047093391418457 0.187184631824493408 0.273826301097869873
0.930849790573120117 0.171960249543190002 0.329858392477035522
0.988901376724243164 0.172600463032722473 0.135629653930664062
0.986990392208099365 0.0552216805517673492 0.234458953142166138
1.01337325572967529 0.168144658207893372 0.0574738383293151855
0.915575265884399414 0.134654134511947632 0.410215049982070923
1.0069345235824585 0.0689006969332695007 0.157129034399986267
1.00912809371948242 0.10015125572681427 0.125194862484931946
0.982269644737243652 0.108170956373214722 0.20850767195224762
0.981508255004882812 0.0898108035326004028 0.225509688258171082
1.00127220153808594 0.130973711609840393 0.127133741974830627
0.949724495410919189 0.268068432807922363 0.191173121333122253
0.969343245029449463 0.089292570948600769 0.266513943672180176
1.00741338729858398 0.173389077186584473 0.0732319056987762451
0.910311698913574219 0.119767732918262482 0.439505219459533691
0.968621313571929932 0.124084480106830597 0.241519540548324585
0.918439507484436035 0.160434946417808533 0.380350708961486816
0.950266182422637939 0.26076042652130127 0.195121467113494873
1.02331924438476562 0.152073398232460022 0.0369415208697319031
0.947529792785644531 0.161674186587333679 0.282297104597091675
0.908132076263427734 0.156330317258834839 0.417980730533599854
0.932629525661468506 0.137213408946990967 0.351287186145782471
0.881040036678314209 0.0708687081933021545 0.57570260763168335
1.01343727111816406 0.131491944193840027 0.0861295014619827271
0.995144903659820557 0.156371504068374634 0.127576887607574463
0.956663191318511963 0.156564950942993164 0.255842298269271851
0.952354013919830322 0.125224262475967407 0.294907629489898682
0.948431909084320068 0.099398389458656311 0.328337550163269043
0.876293718814849854 0.138479068875312805 0.538289070129394531
0.957784950733184814 0.119957312941551208 0.280932366847991943
0.97580641508102417 0.0987317636609077454 0.237510800361633301
0.8759194016456604 0.125633716583251953 0.549655616283416748
0.9143105149269104 0.101610362529754639 0.440462112426757812
